# .PCD v0.7 - Point Cloud Data file format
VERSION 0.7
FIELDS x y z
SIZE 4 4 4
TYPE F F F
COUNT 1 1 1
WIDTH 1367
HEIGHT 1
VIEWPOINT 0 0 0 1 0 0 0
POINTS 1367
DATA ascii
-0.074170999 0.0160875 0.037579998
-0.074634001 0.017202999 0.037409
-0.0739545 0.0161725 0.035965499
-0.074334502 0.017388999 0.035776
-0.073416002 0.016213 0.033043001
-0.073762 0.017597999 0.032937001
-0.072555497 0.01633 0.027588001
-0.072879501 0.0178385 0.027538501
-0.071699999 0.016456001 0.021925
-0.072020501 0.018041 0.0219055
-0.071178503 0.016523501 0.018378999
-0.071519002 0.018134 0.018363999
-0.070758 0.016745999 0.016202999
-0.071050502 0.018280501 0.016174
-0.070207499 0.017337499 0.014652
-0.070290498 0.0186425 0.014593
-0.069967002 0.017896499 0.013242
-0.0697795 0.01904 0.0131845
-0.070477501 0.018020499 0.0114895
-0.070058502 0.0192935 0.011512
-0.070444502 0.019405 0.0099085001
-0.071010999 0.017895 0.0098050004
-0.070253 0.019375499 0.0087075001
-0.070926502 0.020932 0.0096420003
-0.070712 0.020997999 0.0083670001
-0.069456004 0.019354001 0.0076390011
-0.069807999 0.0210675 0.0072034998
-0.0680255 0.019487999 0.0064345002
-0.068352997 0.017493499 0.0061329999
-0.066459499 0.017452501 0.0047780001
-0.068489499 0.015535 0.0059064999
-0.066460498 0.015115 0.0040294998
-0.064712003 0.017301001 0.0037125
-0.064702503 0.015127 0.0028555
-0.065628 0.013263 0.0034670001
-0.064423002 0.0132215 0.0025289999
-0.064314499 0.0119625 0.0034330001
-0.065054499 0.011933 0.0044100001
-0.062152501 0.011427 0.0046374998
-0.062906504 0.0117025 0.00551
-0.064733997 0.0118695 0.0051715001
-0.065669999 0.012098 0.0055745002
-0.066200003 0.0127085 0.0045679999
-0.066726498 0.013417 0.0052669998
-0.067770503 0.013722 0.006664
-0.065882497 0.0123725 0.0064050001
-0.063567497 0.0119735 0.0062290002
-0.061021 0.0121095 0.0069034998
-0.061778501 0.012371 0.007761999
-0.063823 0.012233 0.0072094998
-0.063360997 0.012476 0.0088654999
-0.066095002 0.01254 0.0078395
-0.066265501 0.012682 0.0093870005
-0.068810999 0.013873 0.0082134996
-0.069326997 0.01412 0.0093705002
-0.066352502 0.012882 0.010556
-0.069357 0.0144235 0.010571
-0.071143001 0.016276499 0.0098524997
-0.071018502 0.015959 0.0086254999
-0.070840999 0.0177035 0.0085990001
-0.069958001 0.017538499 0.0074995011
-0.070136003 0.015689 0.007464
-0.070515998 0.016573001 0.011605
-0.068939999 0.014744 0.0122515
-0.066355497 0.013118 0.011726
-0.062681504 0.012942 0.0119065
-0.062841997 0.013143 0.013083
-0.066274501 0.013369 0.0132745
-0.068425 0.0148555 0.0140225
-0.069805004 0.0165675 0.013434
-0.069678999 0.015978999 0.0148895
-0.068159997 0.01453 0.0154945
-0.069898501 0.01531 0.016439499
-0.070224501 0.0150635 0.018551501
-0.068155997 0.014113 0.017027
-0.065899 0.013539 0.01633
-0.066119 0.0135405 0.0149075
-0.063042998 0.013282 0.0145195
-0.059709501 0.014324 0.014267
-0.059303999 0.0141755 0.012996
-0.058471002 0.0136205 0.0114555
-0.062780999 0.0127095 0.010623
-0.060679 0.012675 0.0091169998
-0.0591585 0.012282 0.0079690004
-0.060006 0.0116375 0.0059374999
-0.058982499 0.0111705 0.0050079999
-0.061265498 0.0111545 0.0036764999
-0.063161001 0.011753 0.002539
-0.063181497 0.0129425 0.0016855
-0.062624499 0.0147735 0.0016665
-0.0614595 0.0138115 0.00076949998
-0.062501997 0.012787 0.00086700002
-0.061216 0.012627 0.0002085
-0.061477501 0.011576 0.00085700012
-0.060621001 0.0118085 0.00038149979
-0.05886 0.01088 0.00085700012
-0.058583502 0.011367 0.000185
-0.058157001 0.0123365 -0.0001554998
-0.055337001 0.011049 0.00015649969
-0.055644002 0.0105635 0.00085950008
-0.0559805 0.010418 0.0017885
-0.059296999 0.01076 0.0017345001
-0.056837 0.010504 0.0028975001
-0.060206 0.0108915 0.0026914999
-0.057932001 0.0107715 0.0040250001
-0.057033509 0.0111425 0.0052784998
-0.058157001 0.0116525 0.0063725002
-0.0567475 0.0119525 0.006804999
-0.055645 0.0114135 0.0056564999
-0.055765498 0.0107455 0.0043044998
-0.054332498 0.0104565 0.0030690001
-0.053197499 0.010348 0.0018325
-0.052823499 0.0104925 0.00085700012
-0.052546009 0.010913 0.0001699999
-0.054569501 0.011982 -0.0002754998
-0.057836 0.013345 -9.2499853e-05
-0.060389999 0.01334 0.00026499989
-0.057877 0.0139505 0.00044699991
-0.053866498 0.0137305 0.0002204999
-0.053343002 0.0130755 -0.00041850001
-0.051698498 0.011632 -0.00020199981
-0.05088 0.0109315 0.00035049999
-0.050546501 0.0106635 0.0008485
-0.04975801 0.011318 0.000142
-0.050669499 0.012364 -0.00031800001
-0.051151998 0.01327 -0.0001589998
-0.051542498 0.0136795 0.00041049981
-0.050133001 0.0136405 0.00070799998
-0.050205499 0.0133635 0.000185
-0.049241502 0.0131475 0.0001104999
-0.04886701 0.0134565 0.00080200011
-0.048464 0.012902 0.0002989998
-0.0479775 0.013064 0.00079949998
-0.048078999 0.013354 0.0020860001
-0.047862511 0.012542 0.0021114999
-0.049134001 0.012894 0.004276
-0.049099009 0.0138415 0.0041970001
-0.050861001 0.0134065 0.006391
-0.050571501 0.0144065 0.0063215001
-0.052392501 0.0140285 0.0075504999
-0.052029502 0.014929 0.0076509998
-0.05139751 0.015336 0.0072519989
-0.050464001 0.0148985 0.0059110001
-0.049534511 0.0143555 0.0039444999
-0.048904501 0.0138325 0.002019
-0.049802501 0.0141485 0.001633
-0.051397 0.0140635 0.00082299998
-0.05343451 0.014409 0.00064099953
-0.058066498 0.014459 0.00085850002
-0.061123509 0.015842 0.0010815
-0.062084999 0.017441001 0.0019944999
-0.063217998 0.017232999 0.0028225
-0.063165002 0.0195345 0.0033704999
-0.062072501 0.019493001 0.0025335001
-0.060320999 0.019451501 0.001655
-0.060580499 0.017565999 0.001177
-0.057447001 0.0183935 0.00054400001
-0.0579735 0.0172485 0.00031699991
-0.05537951 0.016801 -0.00018099989
-0.056092501 0.0160395 -1.6499749e-05
-0.055164501 0.01542 0.0002425
-0.058192499 0.0151785 0.00053600001
-0.0539135 0.0165365 8.5999949e-05
-0.054915 0.017970501 -0.00018849999
-0.0564925 0.0193385 0.0002849999
-0.0574365 0.020336499 0.00051500002
-0.060523 0.021294501 0.001133
-0.062082 0.0215155 0.001956
-0.063224502 0.021829 0.0027699999
-0.064631499 0.021917 0.0036365001
-0.064629003 0.019609001 0.0042544999
-0.066302501 0.0196245 0.0052530002
-0.068172 0.021411501 0.005901
-0.070051998 0.022957001 0.0068255002
-0.070954002 0.022859501 0.0081444997
-0.071085498 0.022740999 0.0095250001
-0.070533998 0.02227 0.0112265
-0.070493497 0.020597501 0.0112795
-0.070110001 0.020196499 0.013
-0.070472501 0.019930501 0.0145235
-0.071093 0.019773001 0.016208
-0.071482003 0.0197 0.018409999
-0.071947999 0.019622 0.021909
-0.072799496 0.0194495 0.027483501
-0.073686503 0.019249501 0.032822002
-0.074260503 0.019087501 0.0356135
-0.074563503 0.0190625 0.037251499
-0.072086498 0.0211445 0.027423
-0.071251497 0.0213525 0.0219425
-0.070809498 0.021433501 0.018524
-0.070510499 0.0214685 0.016352
-0.070102997 0.021537 0.014612
-0.069980003 0.021763001 0.0130035
-0.068931498 0.0246475 0.011786
-0.069548503 0.025097501 0.010078
-0.069714502 0.0252485 0.0086070001
-0.069225997 0.025301 0.0071385
-0.068290502 0.023366001 0.0053099999
-0.066285498 0.021778001 0.0046489998
-0.066122003 0.0241655 0.003639
-0.067879997 0.025455501 0.0054390002
-0.067634001 0.027399501 0.0076644998
-0.066768996 0.027290501 0.0059305001
-0.065578997 0.028555499 0.0079244999
-0.0647875 0.028481999 0.0064274999
-0.063581496 0.0288525 0.0078964997
-0.065133497 0.028406 0.0091394996
-0.062577501 0.028788 0.0086639998
-0.063614003 0.028116999 0.010158
-0.060805999 0.028364001 0.0094264997
-0.061184499 0.027772499 0.0110655
-0.058754001 0.027876001 0.010088
-0.058764499 0.027110999 0.011872
-0.056862 0.027083 0.010696
-0.05727401 0.025869999 0.012587
-0.0555695 0.025746999 0.011297
-0.056442998 0.0240875 0.013115
-0.057657499 0.0240795 0.0144805
-0.058591001 0.0258175 0.0138495
-0.060237002 0.026967499 0.0130605
-0.062969998 0.027526001 0.012145
-0.0665555 0.0273555 0.0108635
-0.067579001 0.027364001 0.0091425003
-0.0663625 0.02668 0.0126505
-0.063503496 0.027318001 0.0135115
-0.06099401 0.0269155 0.014326
-0.059474502 0.025827499 0.0150515
-0.058555 0.0240945 0.0156835
-0.059198 0.0241805 0.016748499
-0.060140502 0.02589 0.016193001
-0.05964651 0.024383999 0.017698999
-0.060805999 0.025994999 0.017273
-0.0600085 0.024648 0.018683
-0.061422002 0.0261185 0.018394999
-0.062292509 0.026809501 0.0168075
-0.061518501 0.0268855 0.0155985
-0.063634999 0.027094999 0.0149465
-0.066071503 0.0262635 0.014247
-0.068410002 0.0241355 0.0135095
-0.068530001 0.023799 0.015026
-0.068929002 0.023611 0.016654
-0.069245003 0.023546999 0.0187125
-0.069698997 0.0233845 0.0220105
-0.070513003 0.0229035 0.0273575
-0.068548501 0.024487 0.0271855
-0.067068502 0.025176 0.031699501
-0.066753 0.025188999 0.034728501
-0.064498 0.026028501 0.0338175
-0.063754499 0.0262355 0.035820499
-0.061346501 0.0256065 0.034853
-0.060547501 0.0255895 0.036642499
-0.059330001 0.023915 0.034017
-0.05855 0.023907499 0.035599999
-0.058513001 0.025435001 0.039584499
-0.056426 0.023697 0.038400501
-0.054145999 0.0252 0.044904999
-0.051844999 0.023177501 0.043768
-0.049320001 0.025026999 0.0513965
-0.046780001 0.022586999 0.0503245
-0.045588009 0.0196335 0.049616002
-0.041884001 0.018918499 0.0555005
-0.038908999 0.018370001 0.060237501
-0.035482999 0.014643 0.061911501
-0.0320605 0.0139875 0.063894503
-0.035826501 0.0120175 0.062563002
-0.032170501 0.011241 0.064594001
-0.028437501 0.0102485 0.065911002
-0.0243895 0.0091674989 0.0666015
-0.019788999 0.0081274994 0.066752002
-0.024765 0.007131 0.067697003
-0.029018501 0.008311999 0.067150503
-0.032689001 0.009113499 0.066049501
-0.036559001 0.0099474983 0.063901998
-0.040839501 0.0094429981 0.060907509
-0.042640001 0.008102498 0.061359499
-0.046629511 0.0075149979 0.062392499
-0.049158011 0.0084264977 0.057146002
-0.053698 0.0084184976 0.058272999
-0.0563085 0.0092574973 0.052540001
-0.059660502 0.0105825 0.046502501
-0.062772997 0.011732 0.0413845
-0.064665496 0.012042 0.038408499
-0.065791503 0.012101 0.036492001
-0.068104498 0.0126435 0.037473999
-0.069852501 0.013597 0.038293
-0.071300998 0.0143415 0.039127
-0.072555497 0.0149975 0.039901499
-0.073138997 0.015214 0.0386605
-0.073541 0.0155295 0.037577
-0.073240504 0.0153155 0.036481999
-0.072378501 0.014862 0.033748001
-0.071542002 0.0149805 0.027548
-0.070744 0.015025 0.021996999
-0.068423502 0.0139495 0.018979499
-0.065806501 0.0134645 0.0177735
-0.063144498 0.013554 0.017258501
-0.063179001 0.013404 0.015987501
-0.060121499 0.01436 0.015639501
-0.057851009 0.016488999 0.0149045
-0.058386002 0.016480001 0.0162885
-0.05768 0.01912 0.016477
-0.058115002 0.019164 0.017595001
-0.058782998 0.016508 0.017485499
-0.059009001 0.016650001 0.018429499
-0.0583665 0.0192765 0.018459
-0.059159499 0.016833499 0.0192795
-0.058543 0.019444499 0.019262999
-0.059330001 0.016985999 0.020194501
-0.058753502 0.019656001 0.020202
-0.0594115 0.017005499 0.0220295
-0.0588875 0.0197415 0.0220525
-0.058836009 0.019530499 0.0255925
-0.059288502 0.022221001 0.025653999
-0.0590255 0.0217865 0.029423499
-0.060261 0.0239105 0.029784501
-0.058704499 0.021648999 0.031793501
-0.059877999 0.0238265 0.032299001
-0.062428001 0.0253745 0.030305499
-0.062505499 0.0257525 0.0260475
-0.060547002 0.024436999 0.025810501
-0.059388001 0.022585001 0.022020999
-0.059218001 0.022511 0.020058
-0.058937501 0.0222365 0.019018499
-0.0587065 0.021999501 0.018154999
-0.058387998 0.02183 0.017282501
-0.057846501 0.0217585 0.016217001
-0.057041999 0.019134499 0.0150905
-0.057210509 0.0164585 0.0134005
-0.056262501 0.016385499 0.011919
-0.0556725 0.014721 0.0101115
-0.054803509 0.016267 0.010602
-0.054581001 0.0191685 0.0115765
-0.056182999 0.0191985 0.013421
-0.057059001 0.021757999 0.0149215
-0.060391001 0.0249155 0.0198495
-0.060626499 0.02493 0.021968501
-0.062317502 0.0261705 0.021929501
-0.061941009 0.026234999 0.019663
-0.063091002 0.026725501 0.018060001
-0.064214997 0.026804 0.0162325
-0.066363998 0.025844499 0.015616
-0.066888496 0.0255285 0.017077001
-0.064927503 0.026548 0.017583
-0.063689001 0.026672499 0.0194625
-0.064190499 0.026525499 0.02193
-0.064699002 0.026161499 0.026376
-0.064904504 0.0258915 0.030954501
-0.062007509 0.025430501 0.0329905
-0.058236498 0.021637 0.033376999
-0.057532001 0.0215795 0.034786999
-0.055431999 0.0212755 0.037510999
-0.050776999 0.020523001 0.043037001
-0.050747499 0.017596001 0.04275801
-0.044892501 0.016063999 0.050249498
-0.041368499 0.015954001 0.055201501
-0.038549501 0.015191 0.059135001
-0.038947999 0.012822 0.059905499
-0.0400135 0.0111465 0.060576499
-0.0436115 0.011263 0.055753998
-0.042440001 0.013044 0.055942498
-0.0410785 0.013898 0.056708999
-0.046792999 0.0132085 0.049593009
-0.045536 0.0094319982 0.0561525
-0.048853509 0.0109255 0.0500855
-0.052226499 0.0095094973 0.051235002
-0.0562835 0.0109555 0.045057509
-0.059939999 0.012166 0.039878
-0.061806001 0.0125425 0.036960501
-0.062648498 0.012592 0.035168
-0.066604003 0.0124985 0.0345525
-0.069250502 0.0131245 0.035485499
-0.071157999 0.0140675 0.036422499
-0.072311997 0.0146945 0.037622999
-0.069842502 0.0136315 0.032467499
-0.0695545 0.0138455 0.0273335
-0.068907999 0.0139045 0.0221495
-0.066427998 0.013354 0.022248499
-0.06684 0.013225 0.026946001
-0.066991001 0.012963 0.031675499
-0.063233003 0.0128225 0.033364002
-0.063564003 0.013132 0.030714
-0.063644998 0.0134205 0.026385
-0.063539997 0.0136315 0.0221605
-0.066033497 0.0134185 0.019468499
-0.063126497 0.0136745 0.018486001
-0.06061 0.014587 0.018038999
-0.0604515 0.0144065 0.016951
-0.060711998 0.0147835 0.019032501
-0.060874 0.0148775 0.0200605
-0.0609615 0.0148205 0.022036999
-0.059294999 0.0167895 0.0256385
-0.058646999 0.0192445 0.0292785
-0.05836951 0.019105 0.031567499
-0.057948001 0.019025 0.0330755
-0.0573285 0.018916 0.034419999
-0.0553235 0.0185245 0.0371355
-0.0558955 0.0157985 0.037493002
-0.051561002 0.0147565 0.042979009
-0.053359501 0.0124085 0.04373401
-0.057362501 0.013534 0.038451001
-0.05917 0.0139555 0.035590999
-0.059794001 0.0140305 0.033941999
-0.060247 0.014117 0.032292999
-0.060578499 0.0142745 0.029864
-0.060839999 0.0145645 0.025875
-0.063313 0.013708 0.019824
-0.059052501 0.016526001 0.029405
-0.0587545 0.016403001 0.031714
-0.058347501 0.0163325 0.0332545
-0.057776 0.016227501 0.034715999
-0.066661999 0.025656501 0.026807001
-0.065976501 0.026213501 0.0219965
-0.065456502 0.026431 0.019213
-0.067291997 0.0254195 0.018951001
-0.067777999 0.025183501 0.0220495
-0.056003001 0.0218025 0.0133595
-0.054423999 0.0217785 0.011822
-0.0547865 0.023951 0.011727
-0.052562501 0.0235005 0.010457
-0.053525001 0.025210001 0.0100115
-0.051518001 0.024598001 0.0087764999
-0.052747499 0.026052 0.0080490001
-0.051483501 0.025317 0.0069710012
-0.04992751 0.0242495 0.0076370011
-0.050221998 0.023022501 0.0092345001
-0.048215501 0.022803999 0.0079875002
-0.04965701 0.021360001 0.0094440002
-0.0520675 0.0215725 0.0106005
-0.051912509 0.0198 0.0105305
-0.049114499 0.019577499 0.0094165001
-0.047916502 0.021317501 0.0081005003
-0.046403501 0.021236001 0.0065549999
-0.047827009 0.020022999 0.0080239996
-0.046837501 0.018544501 0.0083104996
-0.046743009 0.019154999 0.0078070001
-0.04680251 0.0199745 0.0062600002
-0.0456005 0.018975001 0.006602
-0.044459511 0.0179365 0.0067405012
-0.046263002 0.017023999 0.0070179999
-0.048176002 0.017546499 0.0084889997
-0.050324 0.018084999 0.0095915003
-0.051970001 0.0185575 0.010337
-0.053458501 0.017715501 0.010559
-0.053054001 0.0161385 0.0094325002
-0.051877499 0.017003 0.0096065002
-0.049920999 0.0165735 0.0084725004
-0.048159 0.0162945 0.007088501
-0.049728502 0.015911501 0.0072854999
-0.051235002 0.0160375 0.0083924998
-0.051825009 0.015704 0.0080509996
-0.0535735 0.0153685 0.008812
-0.053944498 0.014257 0.0081864996
-0.055732001 0.013589 0.0087310001
-0.057541501 0.012704 0.0087905005
-0.055165999 0.0127425 0.0072229998
-0.054157998 0.012055 0.0063494998
-0.054211002 0.0110175 0.0047065001
-0.052421499 0.0106925 0.0033150001
-0.050969001 0.010541 0.0018925
-0.049316 0.0109885 0.001994
-0.050832499 0.011155 0.0037455
-0.052712001 0.011526 0.0054199998
-0.052948501 0.0129615 0.0070745
-0.053994998 0.013352 0.0074784998
-0.050693501 0.015713001 0.0073509999
-0.050394502 0.015509 0.0065934998
-0.0499705 0.015142 0.005254
-0.049552999 0.0146515 0.003547
-0.048266001 0.014945 0.0030334999
-0.048127498 0.0146115 0.001788
-0.04974851 0.014441 0.00071999949
-0.051093999 0.0144305 0.00042999981
-0.052017 0.014969 0.0001344999
-0.053086009 0.0164175 0.00039549981
-0.0536495 0.018014001 1.449972e-05
-0.054581001 0.019299001 -0.0002849999
-0.054916501 0.0206395 -0.0002354997
-0.055275001 0.021805 -0.00029749979
-0.057868 0.021483 0.000239
-0.060059 0.022342499 0.00066449947
-0.0611085 0.0230035 0.00099550001
-0.062689997 0.024245 0.0015595
-0.0645485 0.024123 0.0027025
-0.065184496 0.026089 0.002938
-0.066439502 0.025785999 0.0040079998
-0.065553002 0.027245 0.0044014999
-0.063284002 0.0283955 0.0050214999
-0.062409502 0.029026991 0.0070159999
-0.060408998 0.029033 0.0058085001
-0.060111001 0.028922999 0.0077835
-0.057704501 0.028953001 0.0067015002
-0.058024999 0.028391 0.0085230004
-0.055472501 0.028344 0.0074800001
-0.056286 0.0276525 0.0090274997
-0.054016501 0.027395001 0.0079234997
-0.054813001 0.026621001 0.0094675003
-0.05218 0.027396001 0.006815
-0.053348999 0.028369499 0.006331
-0.051545501 0.0283955 0.0049780002
-0.050615501 0.027477499 0.0054604998
-0.051582001 0.0263965 0.0067754998
-0.051314 0.0256685 0.0059119998
-0.050434999 0.024867 0.006116
-0.048871011 0.0241585 0.0063809999
-0.046063501 0.022740001 0.0064035002
-0.044674009 0.020906501 0.0047924998
-0.04411301 0.021931 0.0046215001
-0.046063501 0.023628499 0.0046600001
-0.0443465 0.023081001 0.0039260001
-0.043452509 0.022705 0.0029885001
-0.043127999 0.021414001 0.003174
-0.043508001 0.020553 0.0032240001
-0.044011001 0.020008 0.003175
-0.04521101 0.020138999 0.0045774998
-0.045110509 0.019515499 0.0046049999
-0.044281509 0.0189145 0.0048949998
-0.043302011 0.018212499 0.0048619998
-0.043811999 0.017206 0.0049425
-0.04532101 0.016599 0.0051679998
-0.047162499 0.016035 0.0053849998
-0.048918501 0.015706999 0.0059155002
-0.048524 0.0153945 0.0044445
-0.046685498 0.015726499 0.0037505
-0.046484001 0.0152995 0.002572
-0.046449501 0.014991 0.0016515
-0.048091009 0.0146485 0.00081200001
-0.049619999 0.0150555 4.5499801e-05
-0.0508045 0.015097 -0.00019649979
-0.051532999 0.015415 -0.0002279999
-0.052406501 0.016407 2.399981e-05
-0.052112501 0.017842 3.049999e-05
-0.051569499 0.017398 -0.00032799979
-0.051677 0.016421501 -0.00045950001
-0.050700001 0.0163785 -0.00048549971
-0.049449001 0.016372001 -0.00032349999
-0.0480505 0.0152215 0.0001279998
-0.046475001 0.015038 0.00079000002
-0.046482 0.0155645 0.0001299998
-0.047898501 0.016495001 -0.0002414998
-0.049346 0.017726 -0.0003084999
-0.050765 0.017671499 -0.0004034999
-0.050985999 0.018373 8.5499851e-05
-0.051194999 0.018851001 0.00059700001
-0.052761499 0.0183565 0.00048099991
-0.053583499 0.019339999 -2.449989e-05
-0.0536795 0.020626999 -4.199981e-05
-0.053903509 0.021986 -4.9999951e-05
-0.055108499 0.0230505 5.6999899e-05
-0.055968501 0.022538001 -0.0001654997
-0.058025509 0.0225855 1.099974e-05
-0.058146998 0.0234525 0.0003839999
-0.058170501 0.024125 0.00069349998
-0.061576001 0.0252045 0.00064450002
-0.0631935 0.026303999 0.0015295
-0.064208999 0.026125999 0.002298
-0.063654996 0.0275805 0.0029515
-0.062647 0.027744001 0.002265
-0.061771002 0.027851 0.0015050001
-0.062588997 0.026451491 0.00073600002
-0.061268002 0.027788499 0.00069900003
-0.05816501 0.028791999 0.0015415
-0.057808001 0.028620001 0.00068150001
-0.053995501 0.029134 0.001609
-0.053770501 0.028924 0.00066949998
-0.050880998 0.028886 0.0016775
-0.050717998 0.028679499 0.00064599997
-0.048918501 0.028243 0.0017500001
-0.04879301 0.028089499 0.00063050003
-0.0482045 0.027400499 0.00183
-0.04916 0.02746 0.0036175
-0.049952511 0.028348999 0.0033249999
-0.051749501 0.0290145 0.00303
-0.054685999 0.029237 0.0027360001
-0.058895499 0.0287975 0.002446
-0.060029 0.028686499 0.0033179999
-0.0559985 0.029236499 0.0038689999
-0.053254999 0.029061001 0.004435
-0.050266501 0.0264965 0.005467
-0.050301999 0.025644001 0.004582
-0.050551001 0.025034999 0.0049955002
-0.048466001 0.024317499 0.0047975001
-0.046360511 0.0241975 0.0032585
-0.044875011 0.023972001 0.0030334999
-0.04412251 0.023545001 0.0027345
-0.043520499 0.0225305 0.0022400001
-0.043287009 0.021193501 0.0022525
-0.043685 0.020400999 0.0022605001
-0.044219501 0.019940499 0.002266
-0.044056501 0.019664999 0.0030624999
-0.044906501 0.019762 0.0041135
-0.043989509 0.0193725 0.0031880001
-0.043432999 0.018921999 0.0032615
-0.042924002 0.018317999 0.0032540001
-0.043054499 0.017663499 0.0043845
-0.0437195 0.0168225 0.0033034999
-0.045016501 0.016206 0.0034390001
-0.045015998 0.015779501 0.0023304999
-0.045151509 0.0155115 0.0015335
-0.045253001 0.0155945 0.00073799951
-0.045300011 0.0160545 0.0001299998
-0.04639101 0.016695 -0.0001859998
-0.047774501 0.017817499 -0.0002219999
-0.049422499 0.018452501 0.0001684999
-0.049518999 0.018928001 0.00069050002
-0.047896001 0.019003 0.00078250002
-0.047819 0.018534999 0.00025999991
-0.046332009 0.0185505 0.00039150001
-0.046312001 0.019034499 0.0010095
-0.045117009 0.018430499 0.000596
-0.045078501 0.018796001 0.001179
-0.044331498 0.0180385 0.00075549999
-0.043993011 0.018492499 0.001547
-0.04383501 0.017333999 0.0015064999
-0.043358009 0.017449001 0.0022390001
-0.04327051 0.018386999 0.002268
-0.042999011 0.0175645 0.0031365
-0.043702509 0.0189465 0.0022765
-0.044222001 0.0192945 0.0022740001
-0.044474501 0.0189755 0.0017350001
-0.045132499 0.018997001 0.001433
-0.045657501 0.019212499 0.001355
-0.045832001 0.019586001 0.0013079999
-0.046591509 0.019602999 0.0010625001
-0.047870498 0.019576 0.0009255
-0.049478501 0.019525999 0.00083949999
-0.051225498 0.019474501 0.00074699952
-0.052723002 0.019414499 0.00050600001
-0.052796509 0.0204065 0.00041949991
-0.0531465 0.0220355 0.00024999969
-0.053507499 0.023809999 0.0004279998
-0.053932 0.0245445 1.099974e-05
-0.0580335 0.024643499 0.0002754998
-0.060449 0.025653001 0.0001214998
-0.061173499 0.026585501 6.5999899e-05
-0.0602725 0.027530501 0.0002234998
-0.057727002 0.026725 -0.00033099981
-0.057848509 0.025384501 -0.00026699991
-0.053985499 0.026921 -0.00050099951
-0.053368501 0.025327999 -0.00064300001
-0.051240999 0.024684001 0.0002329999
-0.051006999 0.0243055 0.00065350003
-0.051831 0.023216501 -6.34998e-05
-0.050562501 0.023912501 0.00026749991
-0.051219001 0.022851501 -0.00040199989
-0.050225999 0.023263 -0.00034749979
-0.050317001 0.022116 -0.00061250001
-0.048994001 0.022334 -0.0004249998
-0.049107999 0.021066001 -0.00040600001
-0.047649499 0.021096 -0.00033050001
-0.04769801 0.020475 0.0001549998
-0.046319 0.020569 0.0002814999
-0.047789011 0.0201135 0.00070899999
-0.049235001 0.020460499 8.0999998e-05
-0.04936251 0.020090001 0.00063149998
-0.046295501 0.020187501 0.00092399999
-0.045656499 0.019992501 0.001311
-0.045223001 0.01957 0.0016985
-0.045035511 0.019251 0.001713
-0.044396501 0.019599 0.0022704999
-0.045035001 0.0199355 0.001696
-0.045132 0.020305499 0.0013830001
-0.045083001 0.020546 0.00111
-0.045135502 0.020822501 0.00051300001
-0.045289509 0.021400001 -4.349976e-05
-0.046342 0.021178 -0.0002264997
-0.0465165 0.022449 -0.00028999979
-0.047697011 0.022412499 -0.00034199981
-0.048954509 0.0236005 -5.8499849e-05
-0.04905251 0.024203001 0.00061250001
-0.047760509 0.0237015 3.6999882e-05
-0.047761511 0.024240499 0.00072299998
-0.046638999 0.024150999 0.00071699999
-0.047820501 0.0243885 0.0015385
-0.04653601 0.024246 0.0015369999
-0.046480499 0.024332499 0.0023010001
-0.0454215 0.024145 0.001531
-0.045200501 0.0242215 0.0022694999
-0.044215001 0.023758 0.0022400001
-0.04400751 0.0225015 0.0015415
-0.044020001 0.021033499 0.001525
-0.044471011 0.020351499 0.0017105
-0.044402 0.021423999 0.00071549998
-0.044775501 0.021755001 0.0002239999
-0.045543998 0.022542 -0.0001949999
-0.045719501 0.023633 5.7500001e-05
-0.046672501 0.023675499 4.0999941e-05
-0.045636501 0.024057999 0.00071299949
-0.044849001 0.023636 0.00072200003
-0.0445535 0.0236935 0.001529
-0.044371501 0.02256 0.00075399998
-0.044815999 0.022606499 0.0001005
-0.04510951 0.023371501 0.00024999969
-0.048059009 0.024503499 0.0023060001
-0.049120501 0.024656 0.001422
-0.049609501 0.0250795 0.00057749997
-0.04990251 0.025400501 3.6999882e-05
-0.050981 0.025245501 -0.0003424999
-0.050851509 0.0265435 -0.00055350002
-0.04994401 0.0261875 -0.00041999991
-0.04915851 0.025981 -2.7999869e-05
-0.048688009 0.0257475 0.00068150001
-0.04869201 0.025582001 0.0017215
-0.048281498 0.026474999 0.001845
-0.049329001 0.0255815 0.0031035
-0.049057499 0.0264895 0.0036345001
-0.048267499 0.0265515 0.00066349999
-0.048672501 0.026558001 0.0001514998
-0.048780501 0.0270455 -6.8499699e-05
-0.048139509 0.0273565 0.0006415
-0.049472 0.0276145 -0.0001109999
-0.05105501 0.028193999 -7.299985e-05
-0.051686499 0.027226999 -0.00048949983
-0.053828001 0.028291499 -4.6499961e-05
-0.0577025 0.028018501 9.9998697e-06
-0.049920999 0.024964999 0.0035965
-0.048324998 0.024506001 0.0033005001
-0.0492405 0.024873 0.0025015001
-0.051112998 0.020065 0.00054650003
-0.052129999 0.020817 -6.4499953e-05
-0.052398 0.021962499 -0.00013099991
-0.05150551 0.021934001 -0.000612
-0.051487502 0.021164499 -0.00044199999
-0.050894 0.0204455 6.9999651e-06
-0.0506135 0.021000501 -0.00050249998
-0.043946002 0.016468 0.0022420001
-0.044268001 0.016262 0.0014725
-0.044460509 0.016325001 0.00070849998
-0.044718999 0.016469499 0.00028849981
-0.04527 0.016917501 -0.0001044997
-0.04630651 0.017875001 -0.0001134998
-0.045197509 0.017828001 4.699975e-05
-0.044521499 0.017115001 0.0001574999
-0.044133011 0.0172385 0.00075349997
-0.044631511 0.0177045 0.00028849981
-0.055329502 0.029019499 0.005622
-0.05808901 0.029135499 0.004826
-0.061595 0.028508 0.0040810001
-0.064553 0.027473001 0.0035375
-0.065669499 0.026366999 0.0033460001
-0.051514 0.0123095 0.0060975002
-0.049693499 0.011877 0.0041395002
-0.048270009 0.011664 0.0020844999
-0.04896101 0.0110735 0.0008335
-0.048857499 0.0119005 9.6499898e-05
-0.048024509 0.0116695 0.00081699959
-0.047696501 0.012401 0.00080500002
-0.048427511 0.0124895 0.0001054999
-0.0498465 0.0128265 -0.0002384999
-0.0097455001 0.0070834998 0.065270998
-0.0048750001 0.007216 0.064167
-0.060145002 0.0164665 0.00074799999
-0.058184501 0.0161085 0.00013650001
-0.062059999 0.0115445 0.0016925
-0.066347003 0.0235865 0.043257002
-0.067263499 0.023864999 0.040026009
-0.069718003 0.023429001 0.038738001
-0.071686 0.022899499 0.038228001
-0.071977504 0.0225545 0.037120499
-0.072980002 0.022481 0.038757998
-0.071177997 0.023177501 0.039516501
-0.069181502 0.02327 0.040529501
-0.069103003 0.022844501 0.042229
-0.070432998 0.022612499 0.042024009
-0.070836499 0.022969 0.040936001
-0.072566003 0.02286 0.040214509
-0.073696002 0.021833001 0.040738009
-0.072121002 0.022497499 0.041637
-0.0730635 0.021426501 0.0423025
-0.073691502 0.019324999 0.042603999
-0.018849 -0.0040060012 0.067823499
-0.019475499 -0.0040450012 0.067321002
-0.017608 -0.0026460011 0.067362003
-0.0654395 0.0220755 0.065652497
-0.065968998 0.021659 0.0607985
-0.066766001 0.021313 0.055958498
-0.068034999 0.021296499 0.050715499
-0.070212997 0.0190285 0.0468775
-0.068651497 0.018839 0.051006999
-0.067424998 0.018719999 0.056095999
-0.067090496 0.018887499 0.060919501
-0.067124002 0.019091001 0.065760501
-0.067001499 0.01908 0.070901997
-0.048216 -1.502108e-06 0.073544003
-0.04857951 -0.0019795019 0.0733945
-0.050207499 -0.003485502 0.073331498
-0.053664502 -0.0040460019 0.073680498
-0.050476 -0.0031945021 0.072193503
-0.050995499 -0.0027355021 0.071452498
-0.0503405 -0.001688502 0.071213
-0.049261 -0.001807502 0.072273001
-0.049007509 -1.502142e-06 0.072370999
-0.04855451 0.001975998 0.073454998
-0.049261 0.001803998 0.072273001
-0.050218001 -1.502195e-06 0.071292996
-0.0503405 0.001685498 0.071213
-0.052698001 0.001720998 0.071029
-0.0552315 0.001830998 0.071686
-0.054653 0.002854998 0.071782
-0.052689999 0.0030869979 0.071273498
-0.050995499 0.002731998 0.071452498
-0.050476 0.003190998 0.072193503
-0.053105999 0.0037404981 0.072345503
-0.035482999 -0.014646 0.061907999
-0.035906501 -0.017986501 0.063362002
-0.037411001 -0.021639001 0.065895997
-0.040339999 -0.021864001 0.0621255
-0.043157499 -0.0251655 0.063727498
-0.0403095 -0.025201499 0.068480998
-0.044673499 -0.027695499 0.070458002
-0.047228999 -0.027415 0.064871997
-0.0505745 -0.028143 0.071169503
-0.052424502 -0.027748501 0.065389499
-0.056634501 -0.027083499 0.071183003
-0.0577465 -0.026672499 0.065546498
-0.0614755 -0.0250565 0.071066998
-0.060883 -0.025358001 0.076944001
-0.06464 -0.022521 0.076637998
-0.064514503 -0.0228895 0.082751997
-0.067261502 -0.019078 0.082459003
-0.066966496 -0.019022999 0.076436996
-0.064972498 -0.022307999 0.070935003
-0.067001499 -0.0190835 0.070901997
-0.066931002 -0.0155525 0.070680998
-0.066976503 -0.015961999 0.065713502
-0.064721003 -0.0129025 0.065293998
-0.066770501 -0.016150501 0.060812999
-0.065249503 -0.013675 0.0603505
-0.062470499 -0.0114805 0.059711501
-0.061026499 -0.010314 0.064717501
-0.056561999 -0.0085940026 0.064201497
-0.051654499 -0.0076825032 0.063506499
-0.050003499 -0.006653002 0.068043999
-0.04419351 -0.0065885019 0.066577002
-0.039399002 -0.0071150018 0.065132
-0.037301999 -0.0082755014 0.064499497
-0.036559001 -0.009951002 0.063901998
-0.035826501 -0.012021 0.062563002
-0.038947999 -0.0128255 0.059905499
-0.038549501 -0.0151945 0.059133999
-0.038908999 -0.018373501 0.060233999
-0.04320401 -0.0221665 0.056689002
-0.045908999 -0.0250635 0.057851501
-0.049734 -0.0269695 0.058876999
-0.054415502 -0.027241999 0.059653498
-0.059158001 -0.026216511 0.0602105
-0.062199499 -0.024693999 0.065607503
-0.063166998 -0.024230501 0.060577001
-0.0654395 -0.022079 0.065652497
-0.065968998 -0.0216625 0.0607985
-0.067124002 -0.019094501 0.065760501
-0.067090496 -0.018890999 0.060919501
-0.066766001 -0.0213165 0.055958498
-0.067424998 -0.018723501 0.056095999
-0.068651497 -0.0188425 0.051006999
-0.066987999 -0.0162505 0.055860009
-0.068301499 -0.016394001 0.050735999
-0.0659995 -0.0142175 0.0551835
-0.067256004 -0.0145465 0.049818009
-0.063991502 -0.012374 0.054313999
-0.0604955 -0.010468 0.053499501
-0.058378 -0.0095845023 0.059074
-0.053698 -0.0084220022 0.058272999
-0.049157999 -0.0084300023 0.057146002
-0.0466295 -0.007518502 0.062392499
-0.042640001 -0.0081060017 0.061359499
-0.040839501 -0.0094465017 0.060907509
-0.0400135 -0.01115 0.060576499
-0.0410785 -0.0139015 0.056708999
-0.041368499 -0.015957501 0.055201501
-0.041884001 -0.0189215 0.0555005
-0.045588009 -0.019637 0.049616002
-0.046780001 -0.022590499 0.0503245
-0.049320001 -0.025030499 0.0513965
-0.052832 -0.026517 0.052619498
-0.056939501 -0.026608501 0.0537805
-0.061023999 -0.025581 0.054777998
-0.064466 -0.023709999 0.055511501
-0.0661835 -0.023174999 0.049945999
-0.068034999 -0.021299999 0.050715499
-0.070212997 -0.019032 0.0468775
-0.070050001 -0.016631 0.046626501
-0.068873502 -0.014908 0.045567501
-0.065449499 -0.0130055 0.04864851
-0.062816501 -0.011477 0.0476215
-0.0563085 -0.0092610028 0.052540001
-0.052226499 -0.0095130019 0.051235002
-0.048853509 -0.010929 0.0500855
-0.045536 -0.0094355019 0.0561525
-0.0436115 -0.0112665 0.055753998
-0.042440001 -0.0130475 0.055942498
-0.044892501 -0.016067499 0.050249498
-0.050747499 -0.017599501 0.04275801
-0.050776999 -0.0205265 0.043037001
-0.051844999 -0.023181001 0.043768
-0.054145999 -0.0252035 0.044904999
-0.0571655 -0.026214501 0.046246499
-0.060388502 -0.025834 0.0475915
-0.063500002 -0.0246315 0.048853509
-0.068071999 -0.022660499 0.045448501
-0.069505997 -0.021309 0.04644401
-0.070908502 -0.021040499 0.044517498
-0.071553499 -0.0190765 0.04493501
-0.071569502 -0.017011501 0.044717502
-0.072832003 -0.017276499 0.043753002
-0.072305501 -0.016031999 0.042967509
-0.070706502 -0.015549 0.043742999
-0.0699635 -0.0146545 0.042314
-0.067226999 -0.01353 0.04333701
-0.065006003 -0.0122715 0.0425805
-0.062772997 -0.0117355 0.0413845
-0.059660502 -0.010586 0.046502501
-0.0562835 -0.010959 0.045057509
-0.053359501 -0.0124115 0.04373401
-0.051561002 -0.01476 0.042979009
-0.046792999 -0.013212 0.049593009
-0.0558955 -0.015802 0.037493002
-0.0553235 -0.018528 0.0371355
-0.055431999 -0.021278501 0.037510999
-0.056426 -0.0237005 0.038400501
-0.058513001 -0.025438501 0.039584499
-0.061087001 -0.026092 0.040924009
-0.063543998 -0.0252585 0.042278498
-0.066347003 -0.02359 0.043257002
-0.069103003 -0.022848001 0.042229
-0.069885001 -0.022200501 0.043586999
-0.071331501 -0.0220595 0.042827509
-0.0721315 -0.020934001 0.043586999
-0.072702996 -0.019125501 0.043927498
-0.073691502 -0.019328499 0.042603999
-0.073810004 -0.017167499 0.042478502
-0.074382 -0.019455999 0.040993501
-0.074449502 -0.016985999 0.04094151
-0.074638501 -0.019277999 0.039127
-0.074698001 -0.017035 0.039191499
-0.073723003 -0.0156915 0.04054201
-0.074066497 -0.0158395 0.039109498
-0.072555497 -0.015001 0.039901499
-0.072033003 -0.0151135 0.041152
-0.071300998 -0.014345 0.039127
-0.07034 -0.0142915 0.040732998
-0.0714375 -0.015271 0.042155001
-0.068464503 -0.013431 0.040293001
-0.066729002 -0.012511 0.039518502
-0.064665496 -0.012045 0.038408499
-0.061806001 -0.012546 0.036960501
-0.059939999 -0.0121695 0.039878
-0.057362501 -0.0135375 0.038451001
-0.05917 -0.013959 0.035590999
-0.057776 -0.016231 0.034715999
-0.0573285 -0.0189195 0.034419999
-0.057532001 -0.021583 0.034786999
-0.05855 -0.023910999 0.035599999
-0.060547501 -0.025593 0.036642499
-0.062950499 -0.0261795 0.037819002
-0.065187998 -0.0252205 0.039034501
-0.067263499 -0.023868499 0.040026009
-0.069181502 -0.0232735 0.040529501
-0.070432998 -0.022616001 0.042024009
-0.072121002 -0.022500999 0.041637
-0.0730635 -0.021430001 0.0423025
-0.073696002 -0.021836501 0.040738009
-0.074020997 -0.021462999 0.038966
-0.074015498 -0.020912001 0.037165001
-0.074563503 -0.019066 0.037251499
-0.074260503 -0.019091001 0.0356135
-0.074334502 -0.017392499 0.035776
-0.073762 -0.017601499 0.032937001
-0.073416002 -0.0162165 0.033043001
-0.072555497 -0.0163335 0.027588001
-0.071542002 -0.014984 0.027548
-0.071730003 -0.0164565 0.021946499
-0.070757501 -0.015026 0.022007
-0.0695545 -0.0138485 0.0273335
-0.069842502 -0.013635 0.032467499
-0.066993997 -0.0129645 0.031682499
-0.066604003 -0.012502 0.0345525
-0.063233003 -0.012826 0.033364002
-0.062648498 -0.0125955 0.035168
-0.059794001 -0.014034 0.033941999
-0.058347501 -0.016336 0.0332545
-0.057948001 -0.0190285 0.0330755
-0.058236498 -0.0216405 0.033376999
-0.059330001 -0.0239185 0.034017
-0.061346501 -0.02561 0.034853
-0.063754499 -0.026239 0.035820499
-0.066023 -0.0253295 0.0368535
-0.068046004 -0.024016 0.037857499
-0.069718003 -0.023432501 0.038738001
-0.071177997 -0.023181001 0.039516501
-0.072566003 -0.0228635 0.040214509
-0.070836499 -0.0229725 0.040936001
-0.072980002 -0.0224845 0.038757998
-0.073045 -0.0219885 0.037208501
-0.073655501 -0.0207875 0.035512999
-0.072443001 -0.022 0.035506502
-0.072995 -0.020922 0.0327015
-0.073686503 -0.019253001 0.032822002
-0.072799496 -0.019453 0.027483501
-0.072879501 -0.017842 0.027538501
-0.072068498 -0.018042 0.021939
-0.071711503 -0.018129 0.018499499
-0.071298003 -0.016514 0.0184635
-0.070279501 -0.0150565 0.018591
-0.068441503 -0.013946 0.018993
-0.068912499 -0.0139065 0.0221525
-0.066073999 -0.01339 0.019560499
-0.066452503 -0.0133395 0.0223055
-0.063466497 -0.013595 0.0201845
-0.063635498 -0.0135665 0.022388
-0.061153501 -0.0147065 0.02076
-0.061136499 -0.0147225 0.0224845
-0.0596705 -0.0168695 0.0211825
-0.059632 -0.016943 0.022681
-0.060924001 -0.0145215 0.026093001
-0.059403501 -0.016764499 0.025962001
-0.059079502 -0.016522501 0.029486001
-0.060599498 -0.0142665 0.029918499
-0.0587545 -0.016406501 0.031714
-0.060247 -0.0141205 0.032292999
-0.063575499 -0.013128 0.0307415
-0.063690498 -0.0133925 0.026495
-0.066851497 -0.013221 0.026973
-0.058369499 -0.0191085 0.031567499
-0.058704499 -0.021652499 0.031793501
-0.059877999 -0.02383 0.032299001
-0.062007502 -0.025434 0.0329905
-0.064498 -0.026032001 0.0338175
-0.066753 -0.025192499 0.034728501
-0.068710499 -0.023934999 0.035799
-0.070308998 -0.023279 0.0371035
-0.071686 -0.022902999 0.038228001
-0.071977504 -0.022558 0.037120499
-0.071151502 -0.022805 0.035926498
-0.071493 -0.0223595 0.032580499
-0.072086498 -0.021148 0.027423
-0.072011001 -0.019626999 0.021954
-0.071734004 -0.019711001 0.0185895
-0.071608 -0.019791 0.016556
-0.0714425 -0.018266501 0.016439
-0.071010001 -0.016721999 0.0163735
-0.0706155 -0.017294999 0.0149125
-0.069907002 -0.015938001 0.015031
-0.070068501 -0.016511999 0.0135865
-0.068515502 -0.0148125 0.0140665
-0.068948001 -0.0146985 0.0122395
-0.070647001 -0.0165195 0.0116665
-0.069269001 -0.0143795 0.0104965
-0.071106501 -0.016231 0.0098050004
-0.069204003 -0.014075 0.0092730001
-0.070912503 -0.015915001 0.0085349996
-0.070014499 -0.0156435 0.0073655001
-0.068685003 -0.013827 0.0081134997
-0.068362497 -0.015489 0.0058054999
-0.067643501 -0.0136755 0.0065629999
-0.066599503 -0.0133705 0.0051664999
-0.066333503 -0.015069 0.0039285002
-0.065500997 -0.013217 0.003366
-0.064575501 -0.015081 0.0027544999
-0.064585 -0.017255001 0.0036114999
-0.063091002 -0.017186999 0.0027214999
-0.063037999 -0.019489 0.0032695001
-0.064502001 -0.0195635 0.0041534998
-0.064504497 -0.0218715 0.0035355
-0.063097499 -0.021783501 0.0026690001
-0.061945502 -0.0194475 0.0024325
-0.061955001 -0.021469999 0.001855
-0.060194001 -0.019406 0.001554
-0.060396001 -0.021248501 0.0010319999
-0.057309501 -0.0202905 0.00041399989
-0.057741001 -0.021437 0.0001384997
-0.055148501 -0.021759501 -0.00039849989
-0.05584199 -0.022492001 -0.00026649979
-0.0549815 -0.0230045 -4.349976e-05
-0.058019999 -0.0234065 0.00028349989
-0.058043499 -0.024079001 0.00059299998
-0.053380501 -0.023763999 0.00032749979
-0.053805001 -0.0244985 -8.9999703e-05
-0.051114 -0.024638001 0.0001319999
-0.053241499 -0.0252825 -0.00074400002
-0.050854001 -0.0252 -0.00044349991
-0.0497755 -0.025355 -6.34998e-05
-0.049482498 -0.0250335 0.00047699979
-0.0490315 -0.025935 -0.0001284998
-0.048560999 -0.0257015 0.000581
-0.048545498 -0.026512001 5.0999799e-05
-0.0481405 -0.0265055 0.00056299998
-0.048154499 -0.026428999 0.001744
-0.048565 -0.025536001 0.0016205
-0.049201999 -0.0255355 0.0030024999
-0.0489305 -0.026443999 0.0035339999
-0.050175 -0.025598001 0.0044809999
-0.049773 -0.024946 0.0034955
-0.050411999 -0.025004501 0.0048949998
-0.048291501 -0.024332499 0.0046965
-0.048114002 -0.024566 0.0031999999
-0.049089499 -0.024857501 0.0024005
-0.048982009 -0.0246215 0.001321
-0.047836501 -0.024579 0.002205
-0.047588009 -0.024444999 0.0014375
-0.048891999 -0.024168 0.00051149999
-0.05088 -0.0242595 0.00055300002
-0.051704001 -0.023170499 -0.00016399971
-0.053019501 -0.0219895 0.0001494998
-0.053776499 -0.02194 -0.00015049989
-0.054789498 -0.0205935 -0.0003364998
-0.056365501 -0.0192925 0.0001839998
-0.057319999 -0.018347999 0.00044349991
-0.060453501 -0.0175205 0.001076
-0.061958 -0.017395001 0.0018935
-0.0624975 -0.014728 0.001566
-0.064296 -0.013175 0.0024285
-0.064187497 -0.0119165 0.003332
-0.063033998 -0.011707 0.0024385001
-0.063054502 -0.0128965 0.001585
-0.061933 -0.0114985 0.001592
-0.06237499 -0.012741 0.00076650002
-0.061350498 -0.01153 0.0007565
-0.05917 -0.010714 0.001634
-0.058733001 -0.010834 0.0007565
-0.055853501 -0.010372 0.001688
-0.055516999 -0.010518 0.00075900002
-0.0530705 -0.010302 0.001732
-0.052696999 -0.0104465 0.0007565
-0.050841998 -0.010495 0.001792
-0.050420001 -0.0106175 0.00074799999
-0.049189001 -0.0109425 0.001893
-0.048834 -0.0110275 0.00073299999
-0.048142999 -0.011618 0.001984
-0.047897499 -0.0116235 0.00071649952
-0.047735501 -0.012496 0.0020109999
-0.04900701 -0.012848 0.0041749999
-0.0495665 -0.011831 0.0040385001
-0.0507055 -0.0111085 0.003645
-0.0522945 -0.0106465 0.0032144999
-0.0542055 -0.0104105 0.0029684999
-0.056710001 -0.010458 0.0027970001
-0.0600795 -0.0108455 0.0025909999
-0.0611385 -0.0111085 0.003576
-0.057805002 -0.0107255 0.0039245002
-0.0556385 -0.0106995 0.0042039999
-0.054083999 -0.0109715 0.0046060001
-0.052584998 -0.01148 0.0053194999
-0.051387001 -0.0122635 0.0059969998
-0.050733998 -0.0133605 0.0062899999
-0.052821498 -0.0129155 0.006974
-0.054031 -0.012009 0.0062485002
-0.055518001 -0.0113675 0.0055559999
-0.056906499 -0.0110965 0.0051779998
-0.0588555 -0.0111245 0.0049075
-0.062025499 -0.0113815 0.0045369999
-0.064927503 -0.011887 0.0043095001
-0.066073 -0.0126625 0.0044669998
-0.065543003 -0.012052 0.0054739998
-0.064607002 -0.0118235 0.0050710002
-0.062779501 -0.011657 0.0054095001
-0.063440502 -0.0119275 0.0061285002
-0.060894001 -0.0120635 0.0068025002
-0.059879001 -0.0115915 0.0058364999
-0.059031501 -0.012236 0.0078685004
-0.058030002 -0.0116065 0.0062719998
-0.056620501 -0.0119065 0.0067039998
-0.057414498 -0.012658 0.0086895004
-0.055605002 -0.0135425 0.0086305002
-0.055558 -0.014691 0.010015
-0.053817499 -0.014211 0.0080855004
-0.053448498 -0.015325 0.0087120002
-0.051902499 -0.014883 0.0075504999
-0.052265499 -0.0139825 0.0074494998
-0.050444499 -0.0143605 0.0062210001
-0.048971999 -0.0137955 0.004096
-0.050337002 -0.014853 0.0058105001
-0.0512705 -0.0152905 0.0071514999
-0.051697999 -0.015658 0.0079504997
-0.052939501 -0.016108001 0.0093360003
-0.051107999 -0.0159915 0.0082914997
-0.051781502 -0.016969999 0.0095124999
-0.0534105 -0.0177685 0.0104855
-0.0547265 -0.016283499 0.010519
-0.056229498 -0.016426001 0.011893
-0.058359001 -0.01358 0.011371
-0.060552001 -0.012629 0.0090159997
-0.061651502 -0.012325 0.0076609999
-0.063695997 -0.012187 0.0071085012
-0.065755501 -0.0123265 0.0063045002
-0.065967999 -0.0124935 0.0077384999
-0.063234001 -0.0124295 0.0087644998
-0.062662497 -0.0126565 0.0105365
-0.0625875 -0.012869 0.011864
-0.059248 -0.014104 0.01302
-0.057209 -0.016445 0.0135125
-0.056221999 -0.019206 0.013547
-0.057149999 -0.019117 0.0155835
-0.057916999 -0.0163895 0.0152645
-0.057950001 -0.0190985 0.0174435
-0.058605 -0.016309001 0.017038999
-0.059154999 -0.016295999 0.0185965
-0.058545001 -0.019151 0.018965499
-0.059448499 -0.0164425 0.0197
-0.060974501 -0.014302 0.018944999
-0.061068501 -0.0145435 0.019915
-0.063320003 -0.013515 0.018941499
-0.063331999 -0.0133625 0.017716501
-0.0607525 -0.0141205 0.017726
-0.060285501 -0.014137 0.016135
-0.059731498 -0.0141865 0.0144675
-0.062799998 -0.0130355 0.0131345
-0.066265501 -0.0130595 0.0116745
-0.066235997 -0.01283 0.010472
-0.066141002 -0.012634 0.0092900004
-0.066240497 -0.0133015 0.013287
-0.063092001 -0.0131245 0.014735
-0.063317999 -0.0132085 0.016363
-0.065947004 -0.013478 0.0164405
-0.066141501 -0.0134695 0.0149845
-0.068245001 -0.014501 0.015543
-0.0681995 -0.0141005 0.017055999
-0.065857999 -0.0134205 0.017888499
-0.059587002 -0.016663 0.0205085
-0.0590115 -0.019451501 0.0207125
-0.059121501 -0.019667501 0.0213525
-0.059122991 -0.019752501 0.0228035
-0.058951002 -0.019538499 0.025962999
-0.058676001 -0.019249 0.029371001
-0.0590505 -0.021798501 0.029499499
-0.0602795 -0.023925999 0.029832
-0.062438 -0.025386 0.030328499
-0.064907499 -0.025897499 0.0309605
-0.067069001 -0.0251795 0.0317
-0.069429502 -0.023653001 0.0330505
-0.070513003 -0.022906501 0.0273575
-0.071326502 -0.021366 0.022
-0.071110502 -0.0214785 0.018753
-0.071119003 -0.021553 0.016788499
-0.071033999 -0.0216575 0.0152135
-0.0712725 -0.019955 0.01502
-0.070895001 -0.0186185 0.0149785
-0.070463002 -0.019009 0.0135935
-0.070430502 -0.017841 0.0135215
-0.070770502 -0.017968001 0.011644
-0.071074501 -0.017849 0.0098040001
-0.070782498 -0.017658999 0.0085270004
-0.069848001 -0.017493 0.0074054999
-0.068226002 -0.0174475 0.0060319998
-0.069224 -0.019321 0.0076604998
-0.067806497 -0.01945 0.0064070011
-0.069178 -0.021073001 0.0075584999
-0.067676499 -0.021396 0.0060924999
-0.069031499 -0.022867 0.0073990002
-0.067527503 -0.0232825 0.0056449999
-0.066066504 -0.021740001 0.0046215001
-0.065893002 -0.024114 0.003608
-0.064421497 -0.024077499 0.002602
-0.065057501 -0.026043501 0.0028369999
-0.064081997 -0.026079999 0.0021975001
-0.063528001 -0.027534509 0.0028510001
-0.064425997 -0.0274275 0.0034365
-0.061468001 -0.028462 0.0039805002
-0.063030504 -0.028235011 0.0048814998
-0.065266997 -0.027068499 0.0043055001
-0.064153999 -0.027977001 0.0061699999
-0.066007003 -0.026721001 0.0058484999
-0.064726502 -0.02782 0.0075254999
-0.066603497 -0.0265885 0.0075965011
-0.0670515 -0.025107 0.0056185001
-0.0661375 -0.025665 0.0039774999
-0.065542497 -0.026321501 0.0032454999
-0.068106003 -0.024821499 0.0074829999
-0.067013003 -0.026873499 0.0090800002
-0.064636 -0.027895 0.0086300001
-0.062977001 -0.028337499 0.0073469998
-0.061947498 -0.028692501 0.0066180001
-0.060198501 -0.028914999 0.0056334999
-0.057962 -0.029089499 0.0047255
-0.059902001 -0.028640499 0.0032174999
-0.062519997 -0.027698001 0.0021639999
-0.063066497 -0.0262585 0.0014290001
-0.062563002 -0.024199 0.0014585
-0.061448999 -0.0251585 0.00054350001
-0.062461998 -0.0264055 0.000635
-0.061046999 -0.02654 -3.4999841e-05
-0.061140999 -0.027742511 0.00059799949
-0.060145501 -0.027485 0.0001229998
-0.057681002 -0.028573999 0.000581
-0.058038 -0.028746011 0.001441
-0.061643999 -0.027805001 0.001404
-0.0587685 -0.0287515 0.0023455
-0.055871502 -0.029190499 0.0037680001
-0.055202499 -0.028973499 0.0055215
-0.057542499 -0.028859001 0.0064874999
-0.059843499 -0.028685501 0.0072289999
-0.062182501 -0.028386001 0.007894
-0.063633002 -0.0278855 0.0096150003
-0.066761002 -0.027434999 0.010962
-0.069765002 -0.0251495 0.0103125
-0.069699503 -0.0248855 0.012249
-0.071342997 -0.022373 0.0116325
-0.071336001 -0.022784 0.0097650001
-0.071158998 -0.020936999 0.0098090004
-0.070416003 -0.021005001 0.0086270003
-0.070611998 -0.0193715 0.0099775
-0.070166498 -0.019343499 0.0087305
-0.070433497 -0.0228245 0.0085629998
-0.069122501 -0.024982 0.0088860001
-0.070540003 -0.01926 0.0117625
-0.071176998 -0.020613501 0.011615
-0.071044996 -0.0218965 0.013628
-0.069430999 -0.024444001 0.014216
-0.067036502 -0.027074501 0.013216
-0.063347504 -0.02774 0.012383
-0.061468501 -0.027474999 0.0106105
-0.0607755 -0.027996 0.0085110003
-0.057946499 -0.0281245 0.007859
-0.055357501 -0.028243 0.0072389999
-0.053222001 -0.028324001 0.0062305001
-0.053128 -0.029015001 0.0043345001
-0.054559 -0.029191511 0.0026354999
-0.053868491 -0.029088501 0.0015085
-0.053643499 -0.028878501 0.00056900003
-0.053701501 -0.028245499 -0.000147
-0.057575502 -0.027973 -9.09999e-05
-0.057599999 -0.026679 -0.00043199991
-0.060322501 -0.0256075 2.049983e-05
-0.057906501 -0.0245975 0.0001744998
-0.057721499 -0.025338501 -0.00036799989
-0.0538585 -0.0268755 -0.00060199999
-0.0515595 -0.027181 -0.00059050001
-0.050928 -0.028147999 -0.0001734999
-0.050590999 -0.028634001 0.00054550002
-0.049345009 -0.0275685 -0.00021149989
-0.050724499 -0.0264975 -0.00065449998
-0.060981501 -0.0229575 0.0008945
-0.05993199 -0.022296499 0.00056349998
-0.057898499 -0.0225395 -8.9499947e-05
-0.049817 -0.0261415 -0.00052050001
-0.048653498 -0.0269995 -0.0001689997
-0.048666 -0.028043499 0.00053000002
-0.048012499 -0.0273105 0.00054099999
-0.048077509 -0.027355 0.0017295
-0.049033001 -0.027414 0.003517
-0.050139502 -0.0264505 0.0053659999
-0.051187001 -0.025622999 0.0058109998
-0.050302502 -0.024828499 0.0060155001
-0.051356498 -0.0252715 0.0068700002
-0.051454999 -0.026350999 0.0066745002
-0.052662 -0.025908999 0.0078640003
-0.051430002 -0.0244125 0.0085429996
-0.053553 -0.024606001 0.0093790004
-0.052469999 -0.0230825 0.0098799998
-0.0501035 -0.022884 0.0090145003
-0.0519775 -0.0213905 0.010239
-0.049539499 -0.02128 0.0092780003
-0.051861491 -0.0198035 0.010388
-0.049047001 -0.019490501 0.0093090003
-0.05026 -0.018011499 0.0094964998
-0.048234001 -0.017307499 0.0083879996
-0.04984 -0.016479 0.0083720004
-0.048105501 -0.016163999 0.006991501
-0.046429999 -0.01664 0.0069315
-0.0470035 -0.018193001 0.0082095005
-0.0477615 -0.019912999 0.0079234997
-0.047789998 -0.021271501 0.0079995003
-0.048088498 -0.022758501 0.0078870002
-0.0498005 -0.024204001 0.0075360001
-0.048732001 -0.024127999 0.0062805
-0.0459885 -0.0227255 0.00624
-0.045906 -0.023596499 0.0044574998
-0.046067499 -0.0241405 0.0030825001
