# .PCD v0.7 - Point Cloud Data file format
VERSION 0.7
FIELDS x y z
SIZE 4 4 4
TYPE F F F
COUNT 1 1 1
WIDTH 750
HEIGHT 1
VIEWPOINT 0 0 0 1 0 0 0
POINTS 750
DATA ascii
0.12649201 -0.045995135 -1.18369
0.12624075 -0.038047254 -1.1867125
0.125388 -0.0615541 -1.17336
0.12578025 -0.056025799 -1.1770325
0.12400375 -0.046860676 -1.1764325
0.118574 -0.034204099 -1.17361
0.12219913 -0.038225915 -1.1771371
0.12678351 -0.087163255 -1.16524
0.12717734 -0.081755094 -1.1688566
0.12468875 -0.071409151 -1.1668174
0.12373125 -0.063569054 -1.168455
0.12158199 -0.055114813 -1.1680686
0.117419 -0.045786958 -1.166662
0.1210352 -0.047320224 -1.1709421
0.064030327 -0.036264349 -1.1665699
0.11519367 -0.037638817 -1.1681992
0.065154091 -0.030645635 -1.1684799
0.069864996 -0.028700816 -1.1662316
0.1072365 -0.028696366 -1.1660317
0.11312767 -0.030299323 -1.1696712
0.126082 -0.096810967 -1.1587833
0.12504351 -0.088997625 -1.15957
0.1235322 -0.079797037 -1.1602019
0.12084633 -0.072431013 -1.15895
0.116396 -0.0624144 -1.1576201
0.12038433 -0.065081067 -1.1617317
0.1101325 -0.052818049 -1.156795
0.11515718 -0.054911736 -1.1600509
0.119857 -0.058797602 -1.1639301
0.066880681 -0.045461748 -1.1603183
0.07196179 -0.044976089 -1.157438
0.10114 -0.0427038 -1.15678
0.10697281 -0.045815013 -1.1579735
0.11316545 -0.046168037 -1.1622912
0.066906601 -0.038877644 -1.16337
0.072575867 -0.038541488 -1.160086
0.079863995 -0.03779427 -1.1578921
0.088804349 -0.037094861 -1.1571099
0.098173976 -0.038040783 -1.1579264
0.10601112 -0.038342513 -1.1608766
0.1107695 -0.039559949 -1.1634901
0.07315889 -0.031352587 -1.1630501
0.080095522 -0.030456919 -1.1612512
0.089043915 -0.030430112 -1.1602311
0.098167866 -0.030462736 -1.1614774
0.105484 -0.032397937 -1.1633633
0.054683752 -0.165168 -1.148785
0.049325898 -0.154704 -1.15396
0.051475201 -0.158902 -1.15188
0.049107298 -0.13839233 -1.1488466
0.049226824 -0.13089649 -1.1516426
0.049312599 -0.125523 -1.15365
0.1272995 -0.12394901 -1.149455
0.12500501 -0.111611 -1.14889
0.12538725 -0.106352 -1.152405
0.1229935 -0.097276665 -1.1509351
0.118269 -0.087027997 -1.14851
0.12164366 -0.089178748 -1.1522833
0.117021 -0.080711596 -1.1499288
0.121181 -0.081908554 -1.15499
0.109346 -0.069178201 -1.14854
0.11497553 -0.07280343 -1.1515884
0.074772701 -0.0602648 -1.148785
0.078061998 -0.060219198 -1.14792
0.1004 -0.060240202 -1.14832
0.10671646 -0.063064873 -1.1497777
0.11350387 -0.064737402 -1.1539288
0.073239721 -0.054529034 -1.1522951
0.081310712 -0.054503515 -1.1497154
0.089540042 -0.054034889 -1.149245
0.097186126 -0.054733649 -1.1498656
0.10593528 -0.055205103 -1.1530322
0.112292 -0.058391999 -1.1559
0.074782051 -0.047860131 -1.1546733
0.081037454 -0.046206608 -1.1536584
0.088719502 -0.045701727 -1.15309
0.097300142 -0.046181247 -1.1538719
0.10398666 -0.048626468 -1.1551033
0.083089598 -0.040422 -1.1558
0.088685051 -0.040413301 -1.155555
0.0943214 -0.040423501 -1.1558501
0.122004 -0.16193201 -1.14169
0.052108102 -0.15743399 -1.1412549
0.12456 -0.157924 -1.1447901
0.04935322 -0.14894821 -1.144236
0.12636 -0.150745 -1.14097
0.049979251 -0.13995999 -1.143345
0.126221 -0.1383995 -1.1397099
0.05097935 -0.13409749 -1.14079
0.051059701 -0.129869 -1.14259
0.12668125 -0.13223425 -1.14387
0.052155726 -0.12540025 -1.142325
0.1247506 -0.123861 -1.142454
0.12266675 -0.11433838 -1.1426737
0.117312 -0.104032 -1.13922
0.121126 -0.10556437 -1.1438624
0.11625285 -0.097561978 -1.1412185
0.12025633 -0.09798523 -1.1461834
0.10852 -0.086373098 -1.13986
0.11437936 -0.089944795 -1.1430471
0.10022102 -0.078072146 -1.1399225
0.10665664 -0.080644779 -1.1414546
0.11263762 -0.082042724 -1.1451249
0.083244294 -0.0688155 -1.14252
0.090393715 -0.071460515 -1.1411601
0.097613752 -0.07209789 -1.1418091
0.10542342 -0.072502874 -1.1446909
0.111438 -0.075778097 -1.14711
0.075803503 -0.062426399 -1.14749
0.081707887 -0.06342572 -1.1454428
0.089860678 -0.063611984 -1.1447947
0.097397596 -0.063445307 -1.1457976
0.10322667 -0.066094302 -1.1466666
0.084699802 -0.057952501 -1.1472
0.088054046 -0.057959601 -1.1473351
0.063735999 -0.18021899 -1.13116
0.060899001 -0.17389466 -1.1329232
0.114418 -0.17382801 -1.13248
0.057666466 -0.16602717 -1.1343216
0.11739867 -0.16656166 -1.1329333
0.119461 -0.16591901 -1.1386
0.054777317 -0.15741344 -1.1342515
0.118663 -0.160414 -1.13099
0.121757 -0.155913 -1.1342125
0.050773304 -0.147907 -1.13618
0.053233482 -0.14914441 -1.132174
0.1242918 -0.14853141 -1.1342219
0.050839871 -0.14146633 -1.13767
0.053294323 -0.1391838 -1.133474
0.1245315 -0.139962 -1.1343875
0.054671265 -0.13073419 -1.134684
0.12247328 -0.13065557 -1.1342843
0.055864263 -0.12496167 -1.1349866
0.11880633 -0.12320533 -1.13236
0.120957 -0.12183781 -1.136022
0.11534471 -0.11439972 -1.1323057
0.119286 -0.11486634 -1.13693
0.109975 -0.105575 -1.1320434
0.11446891 -0.10724808 -1.1349418
0.11033724 -0.098197624 -1.135775
0.113605 -0.099900141 -1.1375481
0.110597 -0.092901804 -1.13845
0.097334534 -0.078899764 -1.1385499
0.065466397 -0.18985166 -1.1231433
0.066516601 -0.18206787 -1.1251186
0.1093785 -0.1804755 -1.1259
0.064147316 -0.17349768 -1.1255722
0.1090835 -0.175625 -1.122865
0.1121042 -0.17341219 -1.1269059
0.059210651 -0.163378 -1.12869
0.062151086 -0.16553228 -1.12523
0.11369975 -0.16507787 -1.12534
0.058205996 -0.15615913 -1.1274601
0.061656825 -0.15823551 -1.1233251
0.11618137 -0.15690787 -1.1255488
0.0569029 -0.14810102 -1.1264812
0.061059397 -0.15046833 -1.12236
0.11685133 -0.14961217 -1.1241267
0.121168 -0.14803225 -1.1287351
0.057073891 -0.14080082 -1.1259309
0.061073098 -0.13741399 -1.12261
0.117901 -0.14082551 -1.1237301
0.1212265 -0.14130683 -1.1275734
0.058230828 -0.13305485 -1.1279328
0.062506974 -0.131294 -1.1239074
0.11585145 -0.13154581 -1.1250018
0.1207045 -0.134969 -1.129535
0.059274398 -0.126232 -1.12991
0.064469188 -0.12566775 -1.124855
0.1078044 -0.1213332 -1.123168
0.11419431 -0.12395824 -1.1269022
0.099628367 -0.11417234 -1.1228501
0.10635007 -0.11524551 -1.1252393
0.1127544 -0.1167018 -1.129034
0.109769 -0.109769 -1.12992
0.066144489 -0.1993717 -1.1188285
0.066889621 -0.1924198 -1.11778
0.06926775 -0.1894035 -1.11409
0.10787228 -0.19063102 -1.1167643
0.0674171 -0.18594 -1.1193
0.070771746 -0.18248786 -1.116485
0.101948 -0.18003599 -1.1164
0.105956 -0.18270046 -1.1179788
0.067507833 -0.17421432 -1.1208067
0.072663516 -0.17461893 -1.116432
0.10074174 -0.17440176 -1.1150438
0.10569713 -0.17416587 -1.1187537
0.066531755 -0.16602071 -1.1201013
0.07260491 -0.1658065 -1.1155224
0.10104146 -0.16635667 -1.11437
0.10643759 -0.16617016 -1.1179633
0.111146 -0.16345 -1.12166
0.065457575 -0.15742008 -1.1196383
0.071512572 -0.15711416 -1.1153625
0.10171551 -0.156902 -1.1138525
0.10630716 -0.15728909 -1.1166009
0.11146279 -0.1571798 -1.1204621
0.064876907 -0.14865492 -1.11882
0.071476497 -0.148371 -1.1148
0.10169 -0.151454 -1.11358
0.10621191 -0.14847799 -1.1155992
0.112399 -0.14865445 -1.1196544
0.064328074 -0.14039887 -1.1185859
0.070392802 -0.13970399 -1.1147751
0.10613299 -0.13970415 -1.1147734
0.1130861 -0.14026742 -1.1192751
0.066114441 -0.13250138 -1.1202725
0.072688796 -0.13127613 -1.1168038
0.080795035 -0.12953241 -1.114856
0.089854509 -0.12882675 -1.1143687
0.098871104 -0.13038218 -1.1150492
0.10606969 -0.13112155 -1.1176177
0.1119166 -0.1332536 -1.120646
0.073234789 -0.12471989 -1.1196167
0.081653498 -0.12291414 -1.1177133
0.090087935 -0.12264713 -1.1172638
0.097768962 -0.12275075 -1.1182084
0.10468226 -0.12387491 -1.1203272
0.084823601 -0.117448 -1.11941
0.089558922 -0.11598957 -1.12034
0.09607622 -0.11591956 -1.1209978
0.07212618 -0.19593599 -1.1081825
0.080594301 -0.19557551 -1.106145
0.089191593 -0.19557676 -1.10615
0.097787678 -0.19557525 -1.1061425
0.1045065 -0.1960825 -1.109015
0.072681732 -0.19110541 -1.1096108
0.078596525 -0.18942986 -1.10612
0.098442033 -0.18976483 -1.1069738
0.104309 -0.19171034 -1.1107367
0.074248336 -0.18332738 -1.1117026
0.080998264 -0.18257634 -1.1084332
0.089277968 -0.182854 -1.107218
0.09792541 -0.18247147 -1.1101139
0.103762 -0.18590701 -1.11259
0.081041902 -0.17397314 -1.1123064
0.089623116 -0.17384657 -1.1114982
0.096219212 -0.174059 -1.1128563
0.081021868 -0.16528708 -1.1120293
0.089606956 -0.16517882 -1.1112994
0.09685161 -0.1649491 -1.1126649
0.07570225 -0.15681225 -1.11322
0.081006549 -0.15661499 -1.1118182
0.089594416 -0.15652019 -1.1111449
0.0972647 -0.15670298 -1.1124417
0.075672649 -0.14810225 -1.11278
0.080991939 -0.14794749 -1.1116176
0.089582697 -0.14786507 -1.1109987
0.098119922 -0.14782587 -1.1123288
0.074597515 -0.13946563 -1.1128738
0.080765203 -0.13950539 -1.1114688
0.089572437 -0.14029391 -1.1108717
0.098533429 -0.13958688 -1.1121179
0.082137324 -0.13370585 -1.1125057
0.08965525 -0.13394094 -1.1118983
0.096407548 -0.13401741 -1.1125281
0.081811383 -0.191506 -1.10393
0.088975005 -0.19081217 -1.1034625
0.095101297 -0.19234733 -1.1040667
0.0019837366 0.021822 -1.0209967
0.0037218106 0.030919345 -1.0225469
0.011118187 0.032163598 -1.0218179
0.0056665787 0.038606718 -1.024997
0.0099518821 0.038814027 -1.02441
0.0050016344 0.013502231 -1.0149599
0.009835545 0.014753751 -1.012435
0.0056212917 0.020519691 -1.0169331
0.010709667 0.021139015 -1.0153514
0.006599708 0.027061516 -1.0191083
0.010687932 0.027314801 -1.018684
0.0078597199 0.0098246504 -1.01131
0.0098192506 0.010801574 -1.0107601
-0.110872 0.048627902 -1.00112
-0.10906934 0.046792049 -0.99649429
0.0230076 -0.087236345 -0.98679852
-0.10696974 0.0235034 -0.98753476
-0.111489 0.030755533 -0.98933297
-0.10654568 0.029756578 -0.98804361
-0.10167966 0.030696901 -0.98740727
-0.11178967 0.036623102 -0.992001
-0.10686606 0.038085707 -0.99102128
-0.101924 0.0355777 -0.98977947
0.012066828 0.039219201 -0.98812288
0.0249185 0.042169701 -0.98654503
0.0268571 0.039327551 -0.98734653
-0.110116 0.042500898 -0.99429101
0.01344445 0.047062334 -0.98862571
0.021461122 0.047550552 -0.9882071
0.014597228 0.054536786 -0.99230015
0.020351861 0.054552212 -0.99164307
0.021442801 -0.089586705 -0.98106396
0.053277399 -0.034249801 -0.97931802
0.051328599 -0.0266148 -0.97843999
0.049449299 -0.019019 -0.978872
0.0476382 -0.0114332 -0.98074001
0.045656599 -0.00570708 -0.97910899
-0.10392433 0.0069705769 -0.97843331
-0.10390113 0.012394257 -0.98120201
-0.10088 0.0133251 -0.97964263
0.0028518999 0.0095048845 -0.9783985
0.0341965 0.0132986 -0.977795
-0.10415222 0.020619521 -0.98458016
-0.10124721 0.021016899 -0.98320818
0.01330945 0.023767401 -0.97858846
0.031063998 0.022189168 -0.97886133
-0.101506 0.026812799 -0.98571801
0.0142905 0.029537648 -0.98072934
0.020922739 0.030434782 -0.97896934
0.028114252 0.029544724 -0.98097563
0.014580498 0.037529711 -0.98418999
0.020852057 0.038046386 -0.98309034
0.026756 0.035356902 -0.98363149
0.0191547 0.044056132 -0.98586434
0.0376806 -0.103622 -0.969675
0.023990666 -0.095335901 -0.97485703
0.026905799 -0.096768528 -0.97179323
0.077276997 -0.098009802 -0.970074
0.089573123 -0.095702648 -0.97056252
0.02386664 -0.091304399 -0.97495043
0.092305101 -0.075351097 -0.96954501
0.071570396 -0.060269799 -0.96936703
0.080080852 -0.066891052 -0.96979499
0.056632496 -0.045843028 -0.97157669
0.060276199 -0.050857998 -0.96947098
0.050908647 -0.0367667 -0.97043502
0.053213943 -0.038624875 -0.97316873
0.049040675 -0.029233225 -0.97078246
0.051156599 -0.030312965 -0.97516233
0.048070874 -0.021064157 -0.97293442
0.045990083 -0.012913994 -0.97270799
-0.1046615 -0.0037712301 -0.97058547
0.041483052 -0.0028277598 -0.97047997
0.043860458 -0.005290668 -0.97300541
-0.103496 0.0030346161 -0.9755947
-0.002826795 0.007538965 -0.97004151
0.0044819498 0.0068417136 -0.97123659
0.01005694 0.0069151367 -0.97054201
0.033284202 0.0069082133 -0.969657
0.038469922 0.0032633608 -0.97224772
-0.037673701 0.0131858 -0.96949703
-0.0273197 0.01130495 -0.96974254
-0.020801041 0.01134816 -0.97344732
-0.013195048 0.0094266227 -0.9703418
-0.0047266353 0.0094592376 -0.97369927
0 0.0094906203 -0.97693002
0.014208925 0.012990842 -0.97140098
0.021683374 0.015085242 -0.97044277
0.029519828 0.013076318 -0.9712171
0.034702066 0.010094727 -0.97417301
0.013967412 0.020125136 -0.97472847
0.020814959 0.021764155 -0.97393215
0.028560352 0.020402147 -0.97493958
0.020874981 0.02656872 -0.97674525
0.026589099 0.026589099 -0.97749299
0.040310398 -0.103124 -0.96501648
0.047368903 -0.10408166 -0.9623037
0.055089351 -0.104574 -0.96111548
0.063751139 -0.10425059 -0.96503019
0.030549884 -0.097016156 -0.96553916
0.036528997 -0.1011625 -0.96419597
0.072663441 -0.098892242 -0.96392918
0.081333399 -0.094925337 -0.96505612
0.088309668 -0.093945436 -0.9670403
0.0244275 -0.086435899 -0.96710801
0.026708623 -0.090440743 -0.96471179
0.080928564 -0.089921005 -0.96166629
0.08902353 -0.089021996 -0.96457297
0.021764239 -0.080277622 -0.96367753
0.083501875 -0.079499014 -0.96114361
0.088924885 -0.080496415 -0.96350414
0.016380301 -0.070672102 -0.96350902
0.018703099 -0.073877901 -0.962614
0.081451304 -0.071593881 -0.96294415
0.087790936 -0.072982937 -0.96592766
-0.002815695 -0.060049303 -0.96582103
0.0045466912 -0.060997214 -0.96384323
0.01214921 -0.065422319 -0.96203989
0.065904923 -0.060294777 -0.96225774
0.072486885 -0.063492797 -0.96402532
0.077489264 -0.066864006 -0.96489429
-0.031785 -0.054218501 -0.96225071
-0.020572731 -0.056101203 -0.9624753
-0.012165635 -0.057999425 -0.96294326
0.056131303 -0.052387465 -0.96295929
0.06315843 -0.055807266 -0.96551985
0.049337637 -0.045126311 -0.9627524
0.054234818 -0.048261486 -0.96554434
0.046833206 -0.038398828 -0.96405804
0.041064002 -0.0270648 -0.96067655
0.045219406 -0.030220874 -0.96462613
0.040722579 -0.020921301 -0.96142179
0.044407178 -0.021889612 -0.96567822
-0.106393 -0.0130658 -0.96067399
0.033598799 -0.0093329903 -0.96070403
0.039041247 -0.012346381 -0.96290851
0.043526988 -0.01377609 -0.96700644
-0.10503 -0.0075021698 -0.96530801
0.0060702022 -0.0023342501 -0.9612627
0.012662424 -0.0026981034 -0.96156907
0.021476801 -0.0018675349 -0.96118629
0.03066138 -0.0039870036 -0.96219796
0.038072467 -0.0049580201 -0.96589309
-0.028021401 0.0074726031 -0.96150303
-0.021110144 0.0066818111 -0.96274674
-0.01267884 0.0059105405 -0.96405023
-0.0047583412 0.0044740387 -0.96465439
0.0034199341 0.002319877 -0.96498579
0.013557895 0.003329959 -0.96557498
0.02154688 0.0037514854 -0.96432698
0.029598938 0.0033295425 -0.96578616
0.036355067 0.00062702998 -0.96781594
-0.046810798 0.01310802 -0.963781
-0.038528599 0.011507426 -0.96391642
-0.030699499 0.010078711 -0.96496832
-0.021620873 0.0094010569 -0.96771055
0.016933501 0.00940747 -0.96837097
0.0216316 0.010346153 -0.96813136
0.026969666 0.010035527 -0.96842766
-0.082208097 0.044840802 -0.961613
-0.102709 0.0522881 -0.961133
-0.10029536 0.057311803 -0.96186465
-0.088411629 0.056602776 -0.96305352
-0.097492315 0.06390436 -0.96377647
-0.090450242 0.063630946 -0.96320015
0.047422349 -0.1022885 -0.95720023
0.055502396 -0.10277543 -0.9567669
0.062387601 -0.102426 -0.9584865
0.032856803 -0.095473565 -0.9572373
0.037746478 -0.097979195 -0.95545262
0.046316277 -0.10004874 -0.9535796
0.0554986 -0.099896803 -0.95213103
0.06399367 -0.10015868 -0.95462853
0.070886798 -0.096832827 -0.95383155
0.029710876 -0.089143619 -0.95584923
0.074870296 -0.088316411 -0.95801228
0.078945272 -0.086404562 -0.95980138
0.023604503 -0.078891434 -0.95914727
0.027211621 -0.081024267 -0.95498687
0.074256249 -0.080751002 -0.95542669
0.079999708 -0.080930531 -0.95939225
0.021949077 -0.071899772 -0.95649707
0.025921633 -0.07406307 -0.95295638
0.06526465 -0.068966627 -0.95291048
0.072627239 -0.072367795 -0.95617259
0.078318797 -0.074588537 -0.95974398
0.0074599399 -0.059679601 -0.95987397
0.013694678 -0.062366329 -0.9581669
0.021131426 -0.063898586 -0.95416659
0.063788399 -0.064015158 -0.95680404
0.070153333 -0.065805882 -0.95857817
-0.052221298 -0.052221298 -0.95990598
-0.046508122 -0.052087177 -0.95743942
-0.038105201 -0.052045524 -0.95667398
-0.028943429 -0.052580569 -0.95671743
-0.0213587 -0.052931387 -0.95585895
-0.012998942 -0.053849962 -0.95565188
-0.0046441886 -0.05480833 -0.95614141
0.0037188902 -0.054852862 -0.95693702
0.013257477 -0.055230763 -0.95622069
0.021321181 -0.055622689 -0.95428431
0.029398451 -0.053935699 -0.95314097
0.0381792 -0.053990506 -0.95316887
0.045765374 -0.05384982 -0.95574701
0.05221045 -0.05314225 -0.959705
-0.0888374 -0.0444187 -0.95256197
-0.078807145 -0.048210699 -0.9543525
-0.069634251 -0.050136101 -0.9557085
-0.063859902 -0.04997655 -0.9526673
-0.037925549 -0.049950898 -0.95217824
-0.029598782 -0.049947701 -0.95211732
-0.00277484 -0.049949199 -0.95214599
0.0045453142 -0.048645463 -0.95294976
0.013130487 -0.046494994 -0.9539848
0.021338295 -0.046387576 -0.95498383
0.02969851 -0.046402272 -0.95532167
0.038081169 -0.046436809 -0.95605868
0.045354854 -0.047323242 -0.95850039
0.01517731 -0.038312878 -0.95259583
0.021315033 -0.037995297 -0.95391154
0.02970947 -0.038063385 -0.95563012
0.038166411 -0.038163997 -0.95817488
0.042904802 -0.0401063 -0.96010101
0.015477189 -0.029271202 -0.95241696
0.021309873 -0.029646913 -0.95367926
0.029709874 -0.02970783 -0.95563316
0.037867837 -0.030106744 -0.9584682
-0.1058315 -0.0194954 -0.95560396
0.0073997499 -0.0184994 -0.95212799
0.013508018 -0.020913608 -0.95307505
0.021322656 -0.021321407 -0.95426494
0.029720208 -0.021359455 -0.95596468
0.037084527 -0.021673936 -0.95866334
-0.10545933 -0.013641793 -0.95786428
-0.0018505401 -0.0092526805 -0.95243698
0.0044877501 -0.01218856 -0.9536922
0.012999833 -0.01299559 -0.95575792
0.021369906 -0.013005033 -0.95639145
0.02962487 -0.013180889 -0.95789176
0.036173001 -0.015289021 -0.9596616
-0.020359799 -0.0018509367 -0.95264333
-0.012227995 -0.0029634901 -0.95362127
-0.0044522691 -0.0044501852 -0.9550525
0.0031415885 -0.00523098 -0.9576894
0.013386002 -0.0062683877 -0.95926976
0.021436086 -0.0055908631 -0.95936304
0.027598958 -0.0067129261 -0.95976335
-0.045615923 0.0067157699 -0.95344287
-0.037765302 0.0050390577 -0.95482433
-0.029801212 0.0033660817 -0.95579284
-0.021586347 0.0021478955 -0.95650512
-0.01348922 0.0013973102 -0.95766091
-0.0052179317 0.00037303599 -0.95932943
-0.061871532 0.016087933 -0.95533603
-0.055251479 0.012229933 -0.95587677
-0.04649758 0.010231492 -0.95732081
-0.039137434 0.009318714 -0.959234
-0.069483697 0.023161 -0.95365846
-0.065867499 0.019482151 -0.95494854
-0.096294701 0.031481463 -0.953098
-0.077700898 0.0333004 -0.95217198
-0.07375963 0.030386448 -0.9550581
-0.09660425 0.038487706 -0.95459962
-0.089060344 0.039902635 -0.9527452
-0.080357619 0.038327023 -0.95444983
-0.076180004 0.0353029 -0.956303
-0.102354 0.046523862 -0.95781022
-0.097523637 0.046441045 -0.95606422
-0.089260966 0.046258193 -0.95545453
-0.083206646 0.044161774 -0.95698202
-0.09731625 0.054463688 -0.95894653
-0.091113001 0.054483633 -0.95866567
-0.095169 0.0597139 -0.96042597
-0.093273804 0.059695199 -0.960127
0.040064342 -0.094894134 -0.94966465
0.046627395 -0.095955491 -0.94830585
0.055267684 -0.096415378 -0.94817185
0.063608848 -0.095874012 -0.9489128
0.069241777 -0.095091984 -0.95032603
0.0327648 -0.088144004 -0.95006651
0.037574489 -0.089871228 -0.94672137
0.044934001 -0.091702804 -0.943955
0.056318861 -0.090256296 -0.94416893
0.063414723 -0.08914572 -0.94601017
0.070105992 -0.089474745 -0.9495036
0.03160239 -0.080643125 -0.9482733
0.034886502 -0.084462002 -0.945023
0.057817794 -0.080759272 -0.94468528
0.063482776 -0.080959454 -0.94702309
0.069247328 -0.081247725 -0.95039719
0.030010032 -0.071678966 -0.94928128
0.058639128 -0.07244923 -0.94806701
0.063316323 -0.072769694 -0.94971538
0.068397999 -0.074867755 -0.95143795
0.0240447 -0.0647358 -0.95195299
0.029546062 -0.063710555 -0.95046121
0.036130439 -0.062764756 -0.95013124
0.058193132 -0.06278675 -0.9457987
0.02998819 -0.058333959 -0.95144993
0.037501555 -0.058364365 -0.9514671
0.056868501 -0.055761419 -0.94718152
-0.086631604 -0.044237401 -0.94867402
-0.080972701 -0.04508815 -0.94714814
-0.072240286 -0.047070224 -0.94793934
-0.063903302 -0.046755332 -0.94571781
-0.055232067 -0.047872324 -0.94756466
-0.046406467 -0.04751781 -0.94781536
-0.038632724 -0.045995127 -0.94686043
-0.029462414 -0.046037938 -0.94774663
-0.021205271 -0.047024667 -0.9490431
-0.012912756 -0.047044653 -0.94946575
-0.0048788772 -0.046683867 -0.95019442
0.0031426058 -0.04509265 -0.95115888
0.0092465896 -0.042534299 -0.95181
-0.105441 -0.03575765 -0.94379151
-0.096160173 -0.039811831 -0.94570607
-0.089217752 -0.042306848 -0.94672024
-0.036675632 -0.042177364 -0.94382197
-0.028668851 -0.041513104 -0.94434583
-0.020647092 -0.04022491 -0.94459671
-0.012856832 -0.038577046 -0.94542181
-0.0046006581 -0.038656957 -0.94738913
0.0035379315 -0.038591366 -0.94956332
0.010721443 -0.037523944 -0.95136386
-0.011925076 -0.029356908 -0.94433737
-0.0045956629 -0.029420983 -0.94640529
0.003690104 -0.029502459 -0.94903529
0.010957295 -0.029833619 -0.95119482
-0.10568867 -0.019663667 -0.94887733
-0.018948199 -0.018948166 -0.94377303
-0.012655376 -0.020965535 -0.9448235
-0.0045992988 -0.021162994 -0.94718438
0.0034997051 -0.021372663 -0.95004159
0.0098619033 -0.0234216 -0.95168567
-0.10302325 -0.013802825 -0.94686174
-0.036321759 -0.0099056708 -0.94415557
-0.029047819 -0.01144514 -0.94484085
-0.021124516 -0.012855846 -0.94545686
-0.012879922 -0.012878682 -0.94713926
-0.0047564008 -0.013105149 -0.94948637
0.0012321033 -0.01539545 -0.95087296
-0.100926 -0.0036700401 -0.94445199
-0.051366501 -0.00183452 -0.94419199
-0.04645497 -0.00330415 -0.94505835
-0.038623326 -0.0045953449 -0.9466545
-0.029494846 -0.0046056542 -0.94882238
-0.021433968 -0.0052499198 -0.94975758
-0.01366766 -0.0062793111 -0.95066035
-0.0073961802 -0.0073961802 -0.95166898
-0.098118998 0.004585885 -0.94392896
-0.061160102 0.0067279264 -0.94434267
-0.054760519 0.0041008648 -0.9466936
-0.046959899 0.0024614937 -0.94909519
-0.039463386 0.00069278502 -0.95025682
-0.033278301 0 -0.95154101
-0.095519297 0.013959004 -0.94541377
-0.069772325 0.01606695 -0.94503349
-0.064198792 0.012680124 -0.9471035
-0.057597645 0.0099695921 -0.95016176
-0.094799876 0.021170713 -0.94740236
-0.089494266 0.021877317 -0.94483495
-0.08042863 0.02269439 -0.94471109
-0.072307907 0.020786125 -0.94715554
-0.066564098 0.01849 -0.951648
-0.094705053 0.028755756 -0.9504143
-0.089346185 0.029477868 -0.94812936
-0.081208035 0.029324906 -0.9481349
-0.074455321 0.027075751 -0.95011854
-0.08888869 0.036406007 -0.95112783
-0.083149329 0.035569973 -0.95101476
0.0408841 -0.087261401 -0.94219571
0.046864469 -0.0882494 -0.94063008
0.053637922 -0.087501414 -0.94215977
0.038491204 -0.081019938 -0.93870014
0.046614096 -0.080378354 -0.93795437
0.052943807 -0.080326512 -0.93958509
0.038180523 -0.072726443 -0.93576455
0.046291966 -0.072222017 -0.93755865
0.053686038 -0.07194116 -0.93977726
0.039209172 -0.064370938 -0.93620896
0.046433855 -0.063730203 -0.93716353
0.053607047 -0.064264357 -0.94054413
0.041934598 -0.058343701 -0.938389
0.046912864 -0.056949634 -0.93947899
0.052841235 -0.056956399 -0.94184351
-0.076970004 -0.0439828 -0.94321501
-0.072300002 -0.0439285 -0.94204944
-0.064014718 -0.0438959 -0.94135058
-0.054909013 -0.043927919 -0.9420374
-0.0485522 -0.0439719 -0.94298148
-0.10420633 -0.034735132 -0.94092298
-0.097379744 -0.036176901 -0.94032621
-0.089197665 -0.037257425 -0.93890572
-0.0807814 -0.039590262 -0.93864471
-0.072277509 -0.039923355 -0.93720925
-0.063509375 -0.03983802 -0.93726605
-0.054821875 -0.038426325 -0.93795615
-0.046781525 -0.038178254 -0.93986475
-0.038659271 -0.037914112 -0.94139075
-0.029615771 -0.037048243 -0.94228935
-0.021756513 -0.035956364 -0.94297707
-0.129463 -0.025527732 -0.93847495
-0.123249 -0.027100313 -0.93877274
-0.11427072 -0.029188689 -0.93886691
-0.10606358 -0.029338604 -0.93810135
-0.098098628 -0.029889859 -0.93680763
-0.091496252 -0.031508952 -0.93558866
-0.053314801 -0.030595899 -0.935462
-0.04709693 -0.029633783 -0.93726099
-0.038330596 -0.029205868 -0.93946838
-0.029255221 -0.029256418 -0.94110334
-0.021055344 -0.029295659 -0.94236583
-0.01649422 -0.029323241 -0.94325304
-0.14868224 -0.019551774 -0.93607199
-0.14026934 -0.021425523 -0.93623471
-0.13184081 -0.020913843 -0.93594742
-0.12352505 -0.021345939 -0.93682897
-0.11507085 -0.022187723 -0.93814147
-0.10615156 -0.023053827 -0.93904167
-0.098081298 -0.022072293 -0.93697256
-0.053227145 -0.021030771 -0.93544155
-0.047583312 -0.021535048 -0.93727785
-0.038353257 -0.021003062 -0.94002807
-0.029276574 -0.021042434 -0.94179076
-0.02155936 -0.021559255 -0.94283259
-0.0164974 -0.0238296 -0.943434
-0.164478 -0.010903935 -0.935399
-0.1563555 -0.012729105 -0.93572605
-0.14918461 -0.0098238215 -0.93637049
-0.13944359 -0.01292266 -0.93692839
-0.13170467 -0.015036867 -0.93822384
-0.123857 -0.016074801 -0.9402194
-0.098886244 -0.012304612 -0.93813139
-0.0612063 -0.010301719 -0.93569976
-0.054628886 -0.012428242 -0.93725526
-0.046783563 -0.012954267 -0.93991369
-0.038983196 -0.013542086 -0.94198978
-0.030001424 -0.015802477 -0.94299299
-0.16279951 -0.0072759651 -0.93620145
-0.15926249 -0.00728057 -0.93679351
-0.097308442 -0.0046268576 -0.938115
-0.070533104 -0.002544828 -0.93562639
-0.063536957 -0.004406943 -0.93717432
-0.05502525 -0.0047118329 -0.94076067
-0.047314469 -0.0067155552 -0.94267184
-0.096072689 0.002924352 -0.94004166
-0.089429162 0.0041387337 -0.93671721
-0.08069919 0.0047112135 -0.93646193
-0.072703488 0.0034939561 -0.9374578
-0.064362377 0.0032415139 -0.94038957
-0.057978202 0.0006104933 -0.94232935
-0.095251754 0.010075205 -0.94277549
-0.089405186 0.0126444 -0.94066447
-0.080355294 0.012787075 -0.93994975
-0.072631456 0.012269326 -0.94148433
-0.067136899 0.0097655831 -0.94238931
-0.087474048 0.0187773 -0.94285226
-0.08100716 0.019132812 -0.94281018
-0.080237344 -0.034854181 -0.93430758
-0.072561599 -0.035374202 -0.93364984
-0.06393078 -0.035293791 -0.93419552
-0.087835655 -0.029279035 -0.93347269
-0.080569699 -0.029875681 -0.93185127
-0.072390378 -0.029862303 -0.931454
-0.063419357 -0.029899199 -0.93261492
-0.056633532 -0.029588044 -0.93424577
-0.147972 -0.018156026 -0.93445754
-0.13904814 -0.018678401 -0.93462986
-0.094368622 -0.020870823 -0.93403476
-0.089407489 -0.021900078 -0.93184555
-0.081182718 -0.021538476 -0.93023747
-0.07233838 -0.021701314 -0.93079287
-0.063407987 -0.02173966 -0.93245053
-0.056548439 -0.022200231 -0.93422502
-0.16277334 -0.0096816132 -0.93431169
-0.15735815 -0.01241279 -0.93373418
-0.14905706 -0.013907633 -0.93367648
-0.141381 -0.015204476 -0.93439847
-0.095047034 -0.013383949 -0.93400687
-0.089179076 -0.012421674 -0.93151516
-0.081082769 -0.012896538 -0.93097794
-0.072446696 -0.012676785 -0.93219179
-0.064268574 -0.013464061 -0.9338609
-0.058115602 -0.016345 -0.93471998
-0.094401203 -0.0072616301 -0.93435699
-0.088852152 -0.0045317826 -0.93326455
-0.080675624 -0.0045309858 -0.93308949
-0.073319584 -0.0052018464 -0.93407542
-0.0672087 -0.0072658001 -0.93489403
-0.087151565 0 -0.93448263
-0.080807596 0 -0.93461645
